 0.000000        3.331306        4.711178
 1.442498        0.832827        4.711178
 2.884996        3.331306        4.711178
 4.327494        0.832827        4.711178
 7.212489        0.832827        4.711178
10.097485        0.832827        4.711178
12.982481        0.832827        4.711178
 0.000000        8.328263        4.711178
 1.442498        5.829786        4.711178
 0.000000       13.325224        4.711178
 1.442498       10.826745        4.711178
 2.884996       13.325224        4.711178
 4.327494       10.826745        4.711178
 5.769991       13.325224        4.711178
 8.654987       13.325224        4.711178
11.539983       13.325224        4.711178
12.982481       10.826745        4.711178
 5.769991        3.331306        4.711178
 8.654987        3.331306        4.711178
11.539983        3.331306        4.711178
 4.327494        5.829786        4.711178
 5.769991        8.328263        4.711178
 7.212489        5.829786        4.711178
 8.654987        8.328263        4.711178
10.097485        5.829786        4.711178
11.539983        8.328263        4.711178
12.982481        5.829786        4.711178
 7.212489       10.826745        4.711178
10.097485       10.826745        4.711178
 2.884996        8.328263        4.711178
 0.000000       14.968246        7.203240
 1.442500        2.475849        7.203240
 2.885000       14.968246        7.203240
 4.327490        2.475849        7.203240
 5.769990       14.968246        7.203240
 7.212490        2.475849        7.203240
 8.654990       14.968246        7.203240
10.097480        2.475849        7.203240
11.539980       14.968246        7.203240
12.982480        2.475849        7.203240
 0.000000        4.974329        7.203240
 1.442500        7.472809        7.203240
 2.885000        4.974329        7.203240
 4.327490        7.472809        7.203240
 5.769990        4.974329        7.203240
 7.212490        7.472809        7.203240
 8.654990        4.974329        7.203240
10.097480        7.472809        7.203240
11.539980        4.974329        7.203240
12.982480        7.472809        7.203240
 0.000000        9.971289        7.203240
 1.442500       12.469769        7.203240
 2.885000        9.971289        7.203240
 4.327490       12.469769        7.203240
 5.769990        9.971289        7.203240
 7.212490       12.469769        7.203240
 8.654990        9.971289        7.203240
10.097480       12.469769        7.203240
11.539980        9.971289        7.203240
12.982480       12.469769        7.203240
 0.000000        1.688801        9.656791
 1.442500        4.187281        9.656791
 2.885000        1.688801        9.656791
 4.327490        4.187281        9.656791
 5.769990        1.688801        9.656791
 8.654990        1.688801        9.656791
10.097480        4.187281        9.656791
11.539980        1.688801        9.656791
12.982480        4.187281        9.656791
 0.000000        6.685760        9.656791
 1.442500        9.184241        9.656791
 2.885000        6.685760        9.656791
 4.327490        9.184241        9.656791
 7.212490        9.184241        9.656791
10.097480        9.184241        9.656791
11.539980        6.685760        9.656791
12.982480        9.184241        9.656791
 0.000000       11.682721        9.656791
 1.442500       14.181201        9.656791
 2.885000       11.682721        9.656791
 4.327490       14.181201        9.656791
 5.769990       11.682721        9.656791
 7.212490       14.181201        9.656791
 8.654990       11.682721        9.656791
10.097480       14.181201        9.656791
11.539980       11.682721        9.656791
12.982480       14.181201        9.656791
 7.212490        4.187281        9.656791
 5.769990        6.685760        9.656791
 8.654990        6.685760        9.656791
 0.000000        3.340135       12.134330
 1.442500        0.841655       12.134330
 2.885000        3.340135       12.134330
 4.327490        0.841655       12.134330
 7.212490        0.841655       12.134330
10.097480        0.841655       12.134330
11.539980        3.340135       12.134330
12.982480        0.841655       12.134330
 0.000000        8.337095       12.134330
 1.442500        5.838615       12.134330
 2.885000        8.337095       12.134330
11.539980        8.337095       12.134330
12.982480        5.838615       12.134330
 0.000000       13.334045       12.134330
 1.442500       10.835567       12.134330
 2.885000       13.334045       12.134330
 4.327490       10.835567       12.134330
 5.769990       13.334045       12.134330
 7.212490       10.835567       12.134330
 8.654990       13.334045       12.134330
10.097480       10.835567       12.134330
11.539980       13.334045       12.134330
12.982480       10.835567       12.134330
 5.769990        3.340135       12.134330
 8.654990        3.340135       12.134330
 4.327490        5.838615       12.134330
 5.769990        8.337095       12.134330
 7.212490        5.838615       12.134330
 8.654990        8.337095       12.134330
10.097480        5.838615       12.134330
 8.037368        7.152016       15.449197
 7.132156        5.736318       14.756967
 7.853691        7.209902       16.530167
 7.745491        8.078660       14.942514
 9.101810        6.961164       15.265964
 5.891660        6.264890       14.856989
